ply
format ascii 1.0
element vertex 1321
property float x
property float y
property float z
property uchar red
property uchar green
property uchar blue
end_header
-1.34252 2.13717 -22.9124 159 116 74
-1.75651 2.41679 -22.2968 93 69 61
3.91316 0.731805 -23.646 120 69 41
-0.183865 1.22843 -23.4782 88 78 91
1.59238 -1.30879 -24.089 153 116 89
0.160687 -0.782293 -24.1775 132 87 54
-5.60672 2.62341 -19.6264 96 52 25
-5.59316 3.90033 -20.7924 201 131 55
2.09822 1.66374 -22.8518 148 94 48
-5.07912 1.95632 -28.5878 189 114 39
3.23217 1.45059 -23.154 156 109 68
-1.79379 1.58993 -23.3606 96 61 41
-5.73791 4.53591 -19.9581 200 128 47
-2.72931 -9.15778 20.7939 180 178 178
1.59841 1.869 -22.653 139 82 38
-1.43012 0.945912 -23.965 85 73 84
-5.72206 4.49013 -19.6759 110 61 29
3.23441 -10.8614 28.8089 208 192 169
-1.0179 1.3573 -23.5922 83 70 80
-5.72741 2.49505 -18.993 207 140 58
-1.10635 1.72053 -23.2253 87 63 54
0.245903 -0.172984 -24.0899 149 100 59
-1.06683 1.35909 -23.5827 81 69 79
3.29647 0.0615479 -23.884 154 106 67
3.52788 1.49215 -23.1474 118 73 43
-0.798869 1.19157 -23.6774 88 76 86
3.62513 -0.619038 -24.0108 65 62 87
1.15043 1.70895 -22.9221 136 79 36
9.24139 -15.6672 25.3279 159 151 148
-5.38465 -6.72247 20.5529 77 49 27
-5.24456 -5.25866 16.8063 135 119 85
3.03465 2.35181 -22.0818 155 107 66
0.483377 -0.474146 -24.1905 143 92 55
0.800451 -15.8003 18.5929 224 233 242
-5.12667 1.77838 -28.7476 198 126 51
-0.96298 1.37818 -23.5816 84 71 80
9.91698 -22.3251 22.1448 161 143 129
4.29125 -29.3295 14.417 210 195 174
-0.012245 -0.818521 -24.2109 130 85 54
3.97121 -2.73633 -23.5203 159 146 146
0.249548 -0.495877 -24.2417 143 92 55
3.60247 1.65818 -22.9433 67 57 66
6.27661 -31.7513 12.852 200 174 147
3.54191 1.42034 -23.2069 65 56 61
-0.401086 -0.165818 -24.1732 144 92 52
0.578982 -13.4857 18.4246 210 220 228
-5.10241 1.6872 -28.4315 97 43 12
3.34245 0.0631181 -23.8696 158 117 87
2.56384 -22.8368 12.4179 77 54 50
-0.157942 -21.2714 11.5244 183 101 25
3.57704 -28.369 14.5162 209 192 172
-1.97636 0.984964 -23.8174 91 79 89
3.94587 -0.532802 -24.0132 64 60 84
-5.12567 0.0168632 -28.7429 86 44 20
-1.13159 1.5505 -23.4308 81 68 77
-1.88661 0.890345 -24.1004 94 81 91
-1.19481 1.21399 -23.7063 105 68 44
-2.48333 1.67085 -23.5472 70 45 38
-0.355296 -9.61767 29.2365 218 212 198
3.20461 1.04971 -23.4285 156 106 60
0.0762315 1.64829 -23.1234 91 80 94
-2.46659 0.893053 -24.2003 90 77 87
3.23756 -0.642963 -24.0839 138 84 50
0.787765 2.60906 -21.3832 104 80 74
-1.99825 1.15081 -23.9388 90 78 88
-5.24335 -1.66058 -28.8045 192 118 46
1.93719 -31.1164 12.7585 217 213 202
3.85564 0.730057 -23.6272 108 61 37
10.9028 -32.3549 10.9668 214 206 193
3.86663 -1.42577 -24.1528 64 43 40
0.136582 -0.960573 -24.3165 77 84 136
-5.28021 0.991709 -23.8661 69 27 7
0.070332 -29.6494 12.6325 193 173 149
-1.65996 1.59722 -23.4731 82 49 30
-5.44897 -4.80318 -22.9395 204 135 55
1.48216 2.1729 -22.4684 77 53 43
3.42318 1.05221 -23.4312 68 58 72
-0.0967328 -28.3637 13.9302 197 178 154
-1.3927 -19.086 16.2371 201 206 210
1.21494 2.49048 -21.6757 131 33 18
-0.40697 -22.2744 17.0872 213 206 189
1.2583 2.26492 -22.0994 118 64 26
0.897441 -0.64843 -24.033 148 94 56
-5.10515 2.59785 -28.2332 181 104 27
2.16873 -17.4574 25.5027 207 192 173
3.35585 -0.175032 -23.869 150 114 91
1.6287 1.68091 -22.7453 144 86 40
1.88612 2.39182 -21.894 83 56 45
-1.38499 -0.691905 -24.4439 120 71 40
-5.08943 3.40618 -27.6407 179 103 35
1.86989 -37.8852 8.24569 194 173 148
1.31438 -31.5447 12.1238 203 185 163
1.41466 2.49724 -21.8409 88 73 78
-5.21528 -1.89229 -28.5121 117 69 38
2.92181 -33.3868 10.3756 214 208 196
0.503102 -21.9719 10.9424 203 131 62
3.36193 -0.518711 -24.0021 144 115 100
3.68803 -0.841115 -24.1328 63 51 55
-0.95796 1.8771 -22.8514 100 81 84
2.68985 -37.5601 9.35608 209 203 191
3.0437 -19.6903 21.2013 206 188 164
-2.20525 2.45084 -22.6476 115 71 41
-1.11035 1.50181 -23.4869 72 58 62
2.65433 1.27597 -23.2504 150 99 55
-8.35014 -40.6049 3.82873 202 170 149
-1.43252 -31.7432 -1.64951 146 85 54
1.33602 2.11937 -22.3875 84 71 80
2.87895 -38.554 6.0298 207 199 186
0.663621 -0.454258 -24.3084 145 94 57
2.57743 0.572081 -23.6661 160 109 64
-2.18664 2.14719 -23.1893 107 71 49
1.65534 -38.0133 7.23404 202 193 178
3.2309 0.0672458 -23.9225 152 100 60
3.24679 1.05291 -23.3388 159 113 73
-0.823216 1.7998 -23.1193 96 76 76
2.10601 1.9169 -22.7099 146 90 44
3.08942 -19.7532 21.3312 205 187 163
-1.41805 1.5074 -23.5678 70 31 13
-1.08422 -9.12932 28.722 207 192 166
0.815681 1.17131 -23.4825 84 69 75
0.160405 -31.4992 12.0809 193 173 146
-1.28467 3.04647 -17.2663 199 199 189
-0.520004 0.688635 -23.9161 89 80 97
-3.05827 2.25731 -22.892 95 68 61
1.38309 2.01627 -22.6496 86 73 82
3.1005 1.70489 -23.0293 154 102 54
2.09591 -38.3642 6.801 195 179 156
-1.02995 -21.2386 16.1344 189 173 150
3.73368 0.714873 -23.8388 70 30 11
-0.589255 0.753226 -23.9841 88 79 96
8.94538 -29.036 14.9107 211 195 179
-0.801768 1.14448 -23.713 85 73 83
1.72441 2.11703 -22.55 137 80 37
0.84699 -10.8484 28.7839 217 214 197
0.367957 1.8605 -22.7565 93 81 91
-1.05538 2.74932 -16.7648 209 154 82
3.40441 1.64121 -23.1253 109 64 41
1.82627 -17.6627 20.484 214 213 207
-0.241832 1.1413 -23.5835 87 74 80
-0.617293 0.805745 -23.9201 89 80 96
-1.55758 1.42302 -23.6215 107 66 38
-2.08779 1.07828 -23.9495 91 79 89
4.68701 -22.9548 19.9772 211 194 172
3.21244 1.15737 -23.2943 159 110 65
-5.882 -0.471118 -24.1521 82 40 17
3.63862 1.07778 -23.4981 105 62 39
3.90105 2.07528 -22.6406 150 110 75
1.46835 2.30809 -21.9631 129 72 28
3.70301 -0.396942 -23.9805 109 65 42
1.99418 -27.2092 14.4936 220 216 205
1.99009 -39.9578 6.98238 191 171 147
-11.5349 -4.82756 18.39 166 164 132
0.543537 -30.3228 12.7356 211 204 188
10.8878 -37.8237 7.44397 194 171 147
-2.36393 1.33914 -23.8313 84 71 80
8.31963 -22.1016 17.2894 214 202 186
3.09284 -0.686305 -24.033 138 86 51
3.36144 -0.683067 -24.0108 146 116 99
-0.218245 -31.4653 12.9451 198 180 156
-5.46795 4.2571 -22.3088 209 144 59
-5.14531 1.47071 -23.0954 115 87 65
4.75591 -22.553 19.1944 211 194 172
1.77603 2.02828 -22.6031 136 81 39
9.02977 -22.1801 19.1521 165 149 134
-1.76435 -9.6701 28.0305 224 221 207
3.81081 -0.0140048 -23.9137 65 58 75
-1.29877 -0.0712236 -24.2372 93 82 98
3.59784 -0.33162 -24.1161 64 61 88
1.05463 -9.8932 28.4507 211 208 191
1.08101 -0.419687 -23.8579 156 107 64
1.09412 2.24113 -22.3081 91 76 79
3.48571 1.38562 -23.4493 138 81 43
-5.53023 -8.42098 -21.1909 207 145 72
0.684823 -0.215902 -24.028 151 102 61
3.43048 1.76252 -22.823 104 56 28
0.0711286 0.905058 -23.7237 83 74 91
-0.165586 1.11029 -23.6537 86 74 81
-0.862573 0.186256 -24.1567 90 80 94
-5.13512 -2.31814 -29.3979 203 128 46
-2.03251 1.78325 -23.3075 80 51 36
3.38286 -0.295844 -24.1198 156 121 97
4.12974 -0.870322 -24.1447 144 113 92
1.11641 -30.02 13.4695 205 189 166
6.85252 -37.6281 6.77789 199 181 157
4.53878 -14.0996 27.0396 209 193 171
0.512161 -28.4737 12.8184 212 205 189
1.53458 -17.044 20.2155 238 248 250
-3.35469 -33.9882 0.0749843 126 117 127
-2.12721 2.46265 -22.3892 97 62 36
2.43014 1.28997 -23.2603 150 97 53
-0.249132 -0.811057 -24.2473 114 74 47
1.24873 -39.9987 7.17171 199 186 169
3.96343 1.75344 -22.9853 147 108 75
3.75442 1.45569 -21.0344 180 147 103
-1.06353 -0.503909 -24.1768 108 71 49
3.57214 1.35253 -23.256 63 55 70
0.455932 1.83462 -22.8093 94 82 93
0.122043 0.954031 -23.6714 82 75 92
1.11092 2.36693 -22.2484 92 75 76
4.85816 -37.1123 7.91847 197 175 151
3.55451 2.64706 -21.8005 66 52 60
-0.952121 1.12138 -23.739 79 69 79
-0.92104 1.13205 -23.6926 82 70 80
-1.69671 1.00249 -23.786 86 74 85
-5.1316 -1.78843 -26.5934 98 57 29
0.637042 -31.9456 12.0405 206 197 182
3.55023 -1.26573 -24.134 99 65 53
0.90766 -39.3747 7.22508 186 166 141
3.59264 2.51554 -22.0207 73 56 56
-5.5019 4.86552 -20.61 207 137 51
-1.72057 -21.3825 15.674 190 173 143
-5.08202 4.01153 -28.6593 207 138 60
3.12554 -22.7159 19.2337 214 203 183
3.54515 1.17864 -23.465 99 60 34
-0.446105 0.447766 -23.9986 86 76 93
0.199139 -27.9768 14.3334 211 203 186
3.52284 1.38727 -23.227 63 52 53
-5.1184 3.38127 -28.2596 202 130 48
7.74596 -35.7781 9.86841 201 183 161
-0.281433 0.799221 -23.8416 86 77 94
0.90393 1.19823 -23.4216 83 72 87
3.64179 2.17792 -22.5796 64 56 70
-0.381045 0.756378 -23.885 87 78 95
-0.827079 0.234989 -24.1153 89 80 96
0.366579 0.446297 -23.9386 154 102 55
-0.345105 0.802076 -23.8544 88 79 96
-5.62803 -9.86572 -19.4803 210 153 80
0.817639 -32.3875 11.004 207 197 181
-5.10584 2.7033 -28.8086 193 119 49
1.07103 -13.6363 18.3859 235 246 253
-5.24909 -5.5632 -27.8883 196 122 49
-0.0891345 0.724093 -23.8633 83 74 93
-1.64716 -28.2422 13.5707 204 189 168
-5.44853 -5.86457 -23.4462 193 124 58
-5.77663 4.89664 -20.5843 202 130 46
10.4947 -31.6365 13.3511 203 181 158
-0.117113 0.784452 -23.8963 85 76 94
-5.6173 3.42187 -19.278 94 49 23
1.54817 -40.4211 6.42003 198 185 168
1.45144 -0.632234 -24.1167 152 98 58
-3.0495 2.07225 -22.802 81 65 67
2.82708 -2.27852 -23.2874 140 102 80
-3.08861 1.50984 -23.7374 149 114 86
5.86885 -31.7309 13.9216 220 215 204
5.32261 -30.3558 14.2339 210 195 177
3.61221 2.69805 -21.5827 60 47 55
-5.27915 -1.79466 -23.8251 119 135 161
0.922378 -27.8358 15.1753 208 193 174
-5.43749 4.74194 -22.9372 207 142 58
1.14157 1.9044 -22.7998 90 77 86
-0.378477 2.49018 -21.5469 163 107 48
7.94173 -27.0996 16.8065 210 197 178
1.20838 -38.0202 7.98179 202 191 176
-5.11662 -2.54981 -30.1711 196 120 47
0.149636 0.851324 -23.7216 83 74 91
-0.160101 -27.3342 14.1195 200 182 158
0.845461 -37.5153 8.00579 191 174 154
-5.34765 -9.01727 -20.9893 207 148 76
0.791625 1.67513 -23.1033 89 78 92
5.01835 -33.904 11.1266 217 211 200
0.838416 1.55072 -23.2973 85 77 91
2.70283 2.5224 -21.7778 146 84 35
0.626408 1.78367 -22.6489 95 82 92
-5.19361 -1.60993 -27.445 100 59 31
-4.87581 4.53379 -30.3183 191 135 86
1.29736 -40.8389 6.84128 197 182 163
-4.99001 0.881346 -31.1335 198 128 60
3.22745 1.62391 -23.0909 143 101 68
3.54282 1.6416 -23.0783 70 59 65
0.729423 -35.7043 8.67856 192 176 153
5.92217 -18.9982 24.6291 212 201 183
1.10662 1.90776 -22.7383 89 78 86
-5.16106 -1.45883 -28.4386 106 61 29
-2.50524 2.28023 -22.8509 88 53 35
3.391 1.14106 -23.1337 96 61 42
3.5106 2.06947 -22.6502 67 56 70
-5.12548 -1.19826 -28.334 101 59 31
-5.32811 -6.97153 -23.8794 199 128 48
6.76562 -26.7143 17.4618 220 213 203
-2.08432 2.27944 -22.7868 100 59 33
9.95503 -36.1553 8.84338 213 205 192
3.6389 -29.9645 13.3426 212 199 183
-5.44429 -6.74162 -24.6323 202 130 48
-5.05263 -0.269549 -31.0183 187 114 46
1.24912 -30.1934 12.4018 204 189 168
6.5469 -24.48 19.0123 213 202 184
1.06833 -36.2289 9.9203 203 194 177
-5.19131 -7.44693 21.6553 128 76 48
-5.09253 0.335343 -30.2316 201 131 55
0.434717 -31.5278 12.9391 207 197 179
-0.796358 0.796193 -23.945 86 77 93
1.59064 -33.1162 10.1283 200 183 163
5.90745 -35.5496 9.13988 202 185 165
-5.14964 -0.135899 -29.4129 196 127 55
1.22259 -36.5311 7.79714 202 190 174
-5.11692 -0.700641 -31.4848 192 118 53
-0.419395 0.479099 -23.9568 86 77 94
0.878233 -40.1977 6.72261 183 162 135
6.96698 -19.5959 21.4452 213 196 176
6.64922 -34.0813 10.573 204 186 162
0.561203 -36.5534 8.06609 190 172 148
-1.64443 0.976185 -23.8709 88 76 88
3.55666 1.66982 -23.0096 71 59 67
-0.895753 0.291185 -24.0963 90 81 98
1.33729 1.90256 -22.7948 86 70 72
-5.09485 0.0579629 -30.0798 190 123 64
1.15642 -27.8032 13.4677 206 191 170
-5.10009 -0.72605 -30.7292 186 117 60
3.7241 1.31742 -23.2886 64 52 67
-5.1001 3.56323 -29.2593 195 121 46
7.0713 -29.8236 13.73 211 195 179
0.497564 1.79162 -22.7588 95 83 93
-5.18403 6.57586 -26.6131 210 145 65
-5.63728 7.80212 -22.6038 205 140 68
-5.52563 4.70124 -21.4774 208 138 53
6.58516 -24.5844 19.3299 213 202 184
-1.49675 0.890314 -24.0012 86 74 86
9.48248 -36.9604 7.30026 211 199 184
3.22338 -0.443698 -23.9475 145 95 58
10.5048 -32.7475 12.4788 205 187 165
-2.87604 1.21756 -23.9137 97 82 86
4.73486 -24.6129 18.9469 214 202 186
-5.14693 -1.63464 -27.8384 102 59 30
8.68967 -28.4926 15.4619 206 189 169
0.208789 0.916918 -23.701 82 74 92
0.343993 1.13128 -23.5747 82 75 92
-5.31269 -1.67732 -24.2682 78 47 38
-0.59079 -10.5952 29.0038 214 205 187
-1.49389 -0.463255 -24.326 88 84 109
-1.01949 0.431837 -24.0284 90 82 97
-1.07054 -39.4455 6.51405 197 189 173
-5.40258 2.01262 -23.719 75 33 9
9.10685 -24.5881 19.7664 169 155 142
-3.01614 2.15595 -23.5652 151 111 76
1.05988 -37.7438 7.04891 193 178 157
1.0571 1.55878 -23.1233 135 80 39
1.66479 -0.486511 -23.9751 161 114 72
1.16642 0.186304 -24.0163 156 105 60
-5.76953 3.05046 -20.1056 109 59 24
6.10254 -35.3171 9.23026 202 185 165
-4.91116 3.84912 -30.0868 207 141 60
3.13001 -0.361975 -23.9034 145 96 56
-5.23746 3.22568 -26.2152 84 34 9
3.12231 -16.5943 23.8492 211 196 177
4.42348 -30.1512 13.7284 211 197 180
-5.15163 1.40599 -29.0411 206 132 44
-5.87492 5.68 -18.343 208 138 52
-6.41869 3.12247 -12.7332 202 140 69
-5.22308 0.158479 -25.1492 85 43 19
9.26174 -32.2997 12.79 214 206 193
-5.33932 -4.6945 -25.8208 169 95 39
8.85822 -6.35425 -21.6195 192 167 142
1.11239 -36.3398 8.71404 202 191 174
-4.99147 3.24056 -28.7785 198 127 48
-5.89495 6.45151 -17.7074 196 121 43
0.455402 -32.1287 11.4295 199 185 166
0.79566 -37.3653 5.94438 186 166 140
-5.24508 0.916933 -25.6816 80 34 10
-5.59189 5.69109 -21.4987 208 140 59
3.21657 -1.23496 -24.1509 137 95 71
-5.10931 -0.4678 -29.7715 192 121 52
-0.999969 0.323692 -24.0659 92 82 98
-5.37336 -7.88166 -25.099 199 126 47
-2.02908 1.28683 -23.7917 84 66 66
3.51592 2.11071 -22.6281 65 57 70
1.27824 1.05171 -23.6163 140 83 38
1.61402 2.48481 -21.8852 86 71 75
-1.50699 -30.7367 12.5351 200 186 167
1.21955 -22.5498 18.5424 223 220 211
-5.47687 -4.49396 -22.9488 150 83 40
-0.490728 0.470749 -24.0316 88 79 94
-1.61878 -0.544115 -24.4062 94 88 110
-2.06 2.04242 -23.0988 91 60 43
5.66389 -20.9525 22.0912 220 214 202
-5.10775 0.430811 -30.0923 188 118 56
-5.33389 -6.64884 -24.2383 200 129 48
-5.08952 1.86717 -27.375 85 35 10
-6.17973 1.52267 -13.6099 209 152 75
-5.00464 4.05854 -29.6292 200 136 74
4.30188 -39.5364 6.9402 211 203 190
1.22054 0.953265 -23.5796 141 84 39
-5.37622 -0.739005 -24.3793 77 39 20
1.5479 -1.03532 -24.0746 155 112 77
-0.0540048 -33.2017 11.075 200 185 164
3.31247 0.878672 -23.5273 127 94 69
-1.58195 -0.23341 -24.317 95 87 110
-2.54621 -8.19915 21.1772 211 209 210
-5.36666 1.54759 -22.8583 83 50 27
7.40769 6.54838 -18.5852 124 93 73
-5.03199 1.50333 -30.0499 194 124 54
-6.54072 3.54286 -12.7066 208 148 75
-6.44709 3.49911 -12.6466 208 151 76
7.38629 -22.9767 20.5719 213 200 179
0.735842 1.69006 -23.1015 89 78 93
-5.32969 2.06456 -24.7926 84 37 12
-0.551515 -33.7875 9.93682 195 180 159
-1.84619 1.05715 -24.0096 91 79 89
-0.0634182 2.00732 -22.7136 165 126 85
-5.28827 -1.62199 -27.661 99 58 30
6.59213 -33.9817 11.096 216 206 191
-6.34937 4.65468 -13.5412 204 137 59
-5.07013 3.53928 -28.0105 202 127 47
-3.69232 0.919704 -23.692 108 72 46
-5.5298 -2.9912 -27.2143 99 55 26
1.01243 2.04825 -22.3801 91 78 87
9.23221 -32.7148 11.3964 216 210 198
-2.14435 2.07953 -22.8251 91 60 42
4.26372 -28.2637 13.8372 215 202 183
3.18593 -0.0966681 -23.9928 148 97 57
0.850837 1.88129 -22.7259 93 80 89
-1.61089 0.104178 -24.1712 100 88 103
1.85138 2.15665 -21.8906 143 85 38
0.675893 -35.0918 9.36869 197 182 161
-5.09784 2.60104 -26.981 83 36 11
-1.97641 0.558451 -24.2841 111 95 98
-5.34418 0.99974 -25.228 84 36 13
-5.10918 0.443216 -30.3259 195 125 55
-5.80596 6.82498 -19.119 204 133 52
2.98199 -22.4817 12.5999 113 82 66
2.51571 -14.183 22.2453 44 46 47
1.40442 -11.8204 19.3382 244 255 255
-1.11331 -22.0763 11.8201 108 56 27
2.1949 -14.6154 21.5315 52 60 67
0.0479076 -19.8564 17.1651 100 92 67
-2.46236 -12.1004 17.2711 229 237 250
3.14908 -22.2306 13.2082 83 39 20
-2.24421 -10.4569 17.8556 87 76 67
-2.77069 -10.1476 18.8494 198 193 190
-1.35105 -10.3905 19.8935 100 61 56
-1.60656 -24.3161 10.5487 214 210 198
-3.31717 -10.5309 18.5902 43 26 18
-2.43512 -9.52892 19.3074 158 156 154
-0.580517 -20.3728 16.7422 160 162 155
-2.74077 -9.95369 17.0479 75 56 49
-2.30197 2.55516 -17.812 162 118 77
-3.25117 -8.27189 19.0658 90 56 41
-11.2881 -7.20106 17.0227 114 108 76
0.277757 2.40172 -22.0418 45 20 8
-0.409992 3.89003 -16.4377 222 222 202
1.86225 -21.4627 13.6564 221 218 208
1.5195 -22.6499 12.5818 126 79 56
2.71501 2.73 -18.3643 69 43 25
1.4972 -22.3725 11.7369 106 75 69
-3.13872 -7.64489 18.3662 85 57 44
2.79663 -22.2415 12.428 157 105 75
-0.101212 -21.4939 17.4905 136 130 97
-2.63313 -9.65766 18.2035 201 197 194
0.677533 2.20381 -22.2605 163 123 86
-6.65767 -7.65982 17.8583 204 204 180
2.09279 -20.1044 13.9888 222 219 210
2.72806 2.81259 -18.3963 68 42 25
4.0208 -3.49 -23.7658 148 88 55
-2.38956 -10.8236 24.5179 105 90 70
-11.8108 -7.55483 16.9687 217 218 200
3.74608 1.56428 -23.2239 134 75 38
3.85103 2.05648 -22.8431 47 24 13
3.11083 -14.0082 24.6533 217 210 200
-0.0502096 -11.2539 24.8417 212 205 187
-2.58386 -7.89388 19.1894 224 224 224
0.143273 1.83903 -22.7666 159 121 83
-3.24244 -8.59121 19.1412 85 55 38
-2.56717 1.43907 -23.5652 51 26 15
2.84971 -21.6774 13.3357 210 203 188
2.91635 2.47873 -18.4201 94 64 45
2.64148 -24.0986 13.038 216 210 198
3.8977 1.4861 -23.324 41 21 12
8.32758 -14.8632 25.4501 133 107 85
-4.78406 -38.1044 -4.68476 169 159 153
-0.2781 1.64815 -23.1139 103 16 9
-2.09737 2.36264 -18.3971 227 229 222
-1.78464 2.21127 -22.3737 67 39 29
-1.67756 2.26891 -22.2857 58 29 13
8.77519 -19.9707 22.5251 136 108 86
0.536701 2.40237 -21.5692 158 101 46
3.87617 1.91486 -22.9563 64 42 31
-1.81322 -10.1896 24.0252 207 201 183
-5.88797 -8.91357 16.8492 125 108 78
0.443777 -21.9073 11.8859 224 171 88
-5.72495 1.39138 -19.4995 210 141 52
-0.489345 1.84509 -22.9097 83 46 38
0.310246 2.08301 -22.5621 62 43 38
-5.46629 1.34193 -19.9971 95 55 29
1.694 -22.0253 12.0452 180 104 50
3.31145 -23.5795 12.9033 84 55 39
3.82233 2.16617 -22.6582 51 25 20
2.53798 -13.4491 25.0559 109 73 64
-1.0683 1.7544 -23.0802 104 62 37
-10.8292 -7.53352 17.049 201 200 172
-0.0743789 3.91605 -16.391 202 196 166
-2.16247 2.24508 -18.339 233 238 231
-1.8792 2.2838 -22.3339 57 28 14
-0.108178 2.53 -21.4098 158 98 40
7.95288 -22.3142 21.326 222 218 207
0.618374 2.45852 -21.4997 157 100 46
-0.367226 2.66643 -21.1327 79 40 14
-0.260074 2.52412 -21.2426 157 98 40
9.60665 -27.9238 18.2051 147 117 96
1.23728 -10.8029 25.2216 215 214 197
-1.97414 2.06736 -22.705 129 78 21
-10.9261 -7.43321 17.0109 198 196 169
3.31695 3.14464 -20.2444 64 42 34
2.35038 -10.9192 25.5017 223 221 208
7.13268 -15.3543 24.0377 223 219 210
-6.68507 -37.0479 -3.42848 80 75 71
0.0755287 4.01974 -16.4093 198 195 164
-1.92039 2.40674 -21.7713 71 42 31
-0.439127 1.94398 -22.7883 69 40 33
0.284225 2.03752 -22.7055 53 30 21
7.45644 -18.8715 22.5333 220 216 205
-0.475635 1.11157 -23.6517 110 85 73
-1.71429 1.19573 -23.6866 41 21 14
2.049 -23.4098 11.2631 212 199 179
10.0085 -31.6864 15.897 164 146 128
0.251309 3.58332 -16.3359 141 108 78
-1.67049 2.42609 -21.5836 158 102 46
-5.19819 -38.223 -4.50111 182 160 147
-0.0654024 1.38013 -23.3601 88 31 25
3.10289 2.59149 -21.9097 62 44 42
2.43954 -12.1051 23.9226 110 88 71
-10.6774 -7.70583 17.1239 201 200 172
-5.53912 -7.47745 17.7315 134 114 84
8.3854 -28.6306 17.2449 219 215 203
8.1743 -25.623 19.2324 220 217 208
12.3023 -44.2784 5.01508 194 177 158
-1.24514 2.12044 -22.472 158 106 55
-5.25491 -9.17079 16.8613 116 96 68
-2.19841 1.52999 -23.4801 94 61 43
3.69504 2.64119 -22.0312 48 30 23
-5.72994 2.35548 -20.3064 175 108 52
-1.5018 2.28563 -22.2079 165 114 64
-4.77264 -36.4721 -3.11114 188 175 164
-11.8697 -50.7123 4.00648 144 122 106
0.904389 -12.8949 18.0343 197 209 221
-4.80819 0.410975 -29.2546 198 126 56
-0.500527 -20.5948 17.3726 164 163 152
0.56007 -2.56917 -23.8567 143 95 67
10.9067 -32.3816 15.3186 209 200 185
4.04779 -15.8288 24.6628 222 218 209
-1.70481 1.92458 -22.9945 89 48 22
1.82099 -12.5972 18.9174 247 255 255
0.113291 1.77536 -22.9397 72 58 56
4.61643 -15.8861 24.9266 222 219 210
8.70012 -26.9856 18.0617 212 206 194
-0.12676 1.68324 -23.0865 113 26 19
-0.667798 -19.2019 16.8616 216 221 225
-12.4548 -7.44008 16.4587 202 201 173
3.75133 2.41301 -22.3366 56 37 31
-5.835 1.5741 -19.5418 93 53 27
3.62811 1.83597 -23.0106 68 55 61
3.69763 -15.4943 24.2738 222 218 209
-5.6488 3.27128 -21.1058 203 134 52
-4.96312 -8.85546 16.7908 77 54 33
1.15746 1.14184 -23.459 84 70 75
3.5213 0.896078 -23.5132 112 74 53
-6.37638 -9.48646 17.0237 200 198 174
3.75578 1.82238 -22.9793 137 77 40
0.747859 -22.4745 10.8105 226 193 147
2.23413 2.66682 -21.2387 146 86 36
3.34192 -12.4728 25.3056 221 218 209
-5.75939 1.90218 -20.0135 91 51 26
-4.82294 -36.7966 -3.74952 171 178 200
-2.07208 1.3711 -23.5755 44 18 8
2.46027 1.98489 -22.1195 151 93 45
-5.38632 -8.40624 16.9486 137 118 86
-6.54006 -6.33315 17.3723 178 175 144
-1.42091 2.31721 -22.2387 166 115 64
-5.71774 3.77022 -20.2555 92 50 25
-11.1204 -11.7521 13.031 223 224 208
-4.86849 0.726251 -29.1401 199 122 44
-1.67527 2.51754 -21.2098 101 55 25
-0.607334 1.58162 -23.0876 90 77 84
0.943746 1.08948 -23.5436 138 83 41
-1.89623 2.16776 -22.5293 80 51 36
-0.588522 1.9117 -22.7883 99 81 82
-0.10736 -22.4218 16.8726 211 204 189
0.739796 -18.8218 18.4048 226 235 242
-1.38939 1.27406 -23.6255 128 86 51
3.29242 1.99414 -22.7808 68 57 68
-0.505489 1.66028 -23.1572 90 77 86
-5.38653 -9.29677 16.7259 134 114 81
2.84245 -13.0065 25.2506 219 215 203
0.211086 2.09889 -22.4627 44 23 14
1.5572 2.04302 -22.5092 131 74 32
3.72811 -12.5782 25.781 221 218 210
-0.413534 -21.2613 12.4111 197 147 80
2.42414 2.70924 -21.1765 146 87 36
1.08517 -19.0314 18.7626 229 238 247
0.962224 1.47486 -23.1796 132 78 39
1.02565 1.21321 -23.33 80 72 87
4.37558 -3.13599 -24.1922 205 199 185
1.82121 -19.8627 21.3819 210 195 174
-5.20868 0.363898 -22.343 128 98 72
-1.54691 1.18869 -23.6701 79 43 22
11.3493 -43.1878 6.43704 203 191 175
0.581478 0.945358 -23.6498 146 89 44
-1.52877 1.72654 -23.101 138 92 54
-0.0763649 2.33394 -21.9882 163 110 55
3.35437 1.3105 -23.3635 67 54 60
8.56426 -36.2207 11.6876 201 184 158
3.72977 2.55104 -22.1902 52 34 28
3.69455 0.958255 -23.6736 64 56 71
-0.124813 0.830893 -23.8086 84 75 92
1.26823 1.25485 -23.3518 136 79 36
-1.29035 1.09171 -23.6964 99 56 29
1.27064 1.75883 -22.7976 75 50 42
1.22566 2.55957 -21.4133 88 73 77
-5.71048 3.03956 -19.9423 181 109 49
2.97653 0.418601 -23.8049 156 103 59
3.07446 -15.0368 24.123 214 210 201
3.40373 -0.694741 -24.2621 151 120 105
2.84925 2.80868 -21.2464 152 101 56
-0.251552 1.28766 -23.4906 88 76 88
3.74553 1.86191 -22.9197 119 68 38
-1.41121 2.06533 -22.8111 161 116 75
-1.84022 2.32788 -22.1616 90 67 61
3.09248 -16.3798 20.4139 205 192 173
-12.1361 -50.4623 5.77075 145 119 100
-1.19734 0.928227 -23.9075 76 62 67
1.81554 -13.8164 20.9536 234 243 249
2.95654 2.67399 -21.7041 153 104 64
1.88002 1.80634 -22.7639 144 87 42
0.834744 -17.1323 16.6266 225 232 237
-1.89207 1.36323 -23.5801 89 56 36
0.700228 2.35428 -21.9559 163 113 64
-5.82117 4.4177 -19.5126 101 58 27
2.26316 2.5314 -21.6366 146 86 36
-1.91071 1.98782 -22.8873 141 74 19
-0.590241 1.58729 -23.2311 91 76 83
-0.224902 1.45454 -23.3029 136 27 16
-7.27927 -36.5763 -4.07585 185 185 187
-11.6467 -49.418 2.3685 155 147 138
-1.92848 2.57288 -17.9543 221 221 213
-5.93705 2.32669 -18.6779 210 142 57
8.34185 -31.7403 15.0628 217 212 200
-2.90729 -10.7105 17.7247 157 121 97
-1.88302 1.96891 -22.9835 124 49 13
-0.172613 1.25199 -23.5084 88 77 91
-1.56612 1.72835 -23.1304 132 86 49
1.14094 1.69838 -22.908 134 77 34
-1.06143 -0.465471 -24.4376 87 83 110
1.60139 1.88885 -22.682 137 80 37
-0.972523 1.4871 -23.3518 97 70 58
-5.26268 0.597554 -24.1233 69 29 10
0.258239 -21.2932 18.568 197 201 82
-0.122308 0.445466 -24.0456 148 94 48
7.94094 -31.8671 15.1801 218 214 202
-1.74715 1.08695 -23.7854 89 76 87
-0.822007 1.1599 -23.6382 87 74 87
-0.608492 -21.8188 11.8306 175 97 35
0.346644 2.41591 -21.7685 98 70 53
9.20713 -35.6933 12.177 201 181 154
-5.25017 3.88806 -26.3705 94 43 15
-1.04791 1.31731 -23.5416 82 70 79
-12.1139 -7.14995 17.0307 162 158 123
3.05876 2.40858 -22.1692 153 105 64
-5.94568 -35.6258 -2.96878 181 154 134
-3.01502 -13.3005 17.401 226 233 245
3.67386 -17.262 22.3178 203 191 176
-2.53869 1.60496 -23.4607 71 46 39
-1.92999 -10.1482 18.4624 168 158 156
-4.96538 2.01171 -28.6221 194 115 38
2.92163 2.776 -21.4952 152 103 58
-1.78826 1.59396 -23.3655 108 73 52
3.02018 -43.3058 4.74475 203 194 176
0.540087 -0.352398 -24.3185 143 94 54
3.54953 1.54721 -23.2199 116 69 42
2.10919 1.88369 -22.7357 144 90 44
-0.355532 0.999082 -23.681 89 78 86
3.42468 0.203929 -23.733 65 30 11
-5.44 4.56662 -25.0022 202 131 51
-5.0438 2.23259 -28.4829 185 105 35
-0.99283 1.33743 -23.5299 85 72 81
0.959961 1.02441 -23.6025 141 84 39
2.15964 -43.4694 2.95755 194 180 158
-13.5911 -50.1186 4.88933 193 180 171
1.72487 -20.7698 17.1309 223 220 211
-5.76828 4.2815 -20.1627 210 136 52
0.287677 -0.0959571 -24.1726 151 101 59
3.08807 2.30429 -22.3263 155 107 66
0.317722 2.16289 -22.3015 93 74 72
3.30614 0.110622 -23.9395 153 108 70
-0.551409 -22.9074 18.0865 211 203 188
11.107 -34.6056 13.0069 215 208 194
0.315307 -0.289208 -24.0725 148 99 59
-2.12182 2.40944 -22.2812 62 30 14
-1.44603 0.929289 -23.9458 86 74 86
-0.856618 1.17675 -23.6617 87 75 87
1.112 1.63428 -23.0216 134 76 36
0.785938 2.60854 -21.3824 96 75 70
-2.5664 1.60951 -23.5001 69 46 38
1.62863 1.70243 -22.7764 144 87 42
-1.99329 2.40555 -21.9931 74 46 32
3.44029 -43.4463 5.73986 205 196 181
-1.54136 1.62754 -23.2189 123 79 46
-0.206502 -28.8781 14.5837 196 177 145
-1.82993 0.970595 -24.1954 95 83 93
-1.49576 -19.3359 16.6668 195 202 208
-5.05575 2.85863 -28.113 194 115 37
-5.32151 4.10776 -25.6683 79 33 9
-4.72305 -1.06143 -29.2233 199 122 42
3.33069 -0.00570169 -23.9588 156 115 83
0.219736 2.56096 -21.3806 101 78 71
-0.122559 -30.625 13.7999 194 175 145
-5.09936 -4.41214 -23.6804 205 134 54
-5.06822 2.59493 -28.2193 190 108 29
-5.47089 1.5777 -22.8207 63 22 4
-1.91753 1.07731 -23.9307 92 80 90
-12.3974 -49.5764 5.6151 196 186 177
-10.5869 -6.39319 17.8512 204 202 176
3.36523 -0.144267 -23.9025 131 98 80
3.22152 1.11577 -23.5117 155 103 57
3.63385 1.74985 -23.068 64 53 65
2.41292 -42.9464 3.52733 186 161 128
-0.960914 1.88449 -22.8626 99 80 84
2.17469 -33.9195 11.4134 216 212 200
-1.75129 2.39097 -22.0319 84 53 39
1.39066 2.47359 -21.8044 84 69 74
3.42121 -39.4748 6.42692 208 201 185
-0.886526 -0.0352865 -24.3727 136 84 44
-2.06349 1.07636 -23.8494 92 79 89
1.46561 2.14672 -22.4301 85 67 67
-4.80097 -1.45356 -28.7812 108 61 32
3.87737 0.802504 -23.7137 67 36 22
-1.16521 1.50868 -23.3766 80 67 77
-4.72397 -10.1875 16.3635 72 42 22
2.10847 1.91495 -22.7069 144 89 44
0.916238 -15.2934 17.5852 221 229 236
2.44938 -31.4564 13.9475 219 215 204
3.00092 -20.2463 22.2204 204 186 162
-4.61519 -37.1679 -3.0286 152 139 135
1.42975 2.51576 -21.7818 84 71 78
-5.26813 4.1903 -26.4367 204 129 46
-5.33507 1.35809 -22.912 113 85 63
0.624383 -13.3486 18.1293 208 217 226
2.79923 1.19009 -23.4053 152 98 52
-2.48811 0.886215 -24.1949 92 79 89
1.84664 -37.9107 8.26915 196 176 151
-5.67641 3.45364 -20.5749 104 57 27
-3.84983 -9.05927 16.4363 158 88 36
-2.30432 2.00934 -22.9952 108 70 50
-5.16462 -4.44252 -23.2422 209 138 56
-5.06804 2.38814 -28.0309 90 40 13
2.81815 -39.1782 6.56582 209 203 189
0.926222 0.061772 -24.1527 155 104 59
2.86156 -20.2408 21.0799 220 214 202
2.78445 -34.4018 11.435 213 209 197
1.55638 -38.6339 7.78289 205 197 181
3.0344 2.51245 -22.0334 153 104 63
0.431391 -22.3279 11.447 203 129 58
-5.95183 -9.98249 17.0813 140 124 93
3.08586 -20.0575 21.8902 204 186 162
0.0435895 -31.9563 12.5972 193 174 144
3.43064 -44.2029 1.40369 174 158 127
1.70471 2.07789 -22.4928 137 80 35
2.64528 -38.0509 9.81985 211 205 191
0.0974891 0.817892 -23.8606 81 72 86
0.823482 0.858268 -23.7274 148 91 46
-4.67608 -9.44894 -24.7297 185 109 42
-3.169 2.13898 -22.7201 101 69 56
-5.40333 6.80366 -26.5161 216 159 89
3.92251 2.137 -22.7298 149 105 70
-11.5883 -6.78789 17.0416 199 198 167
1.33887 2.1199 -22.388 84 71 78
0.395277 -0.147001 -24.1084 150 101 60
-2.07024 0.489533 -24.2458 113 98 101
0.973307 -32.924 12.3662 210 204 188
0.555517 -0.0672396 -24.0239 154 103 59
0.973272 -41.7081 4.50595 178 155 123
2.51344 -22.1591 13.1156 116 69 42
-1.46154 1.9411 -22.8633 139 102 71
-5.36807 4.22897 -25.1276 85 36 10
0.816533 1.1847 -23.5003 82 71 83
6.67096 -41.5799 5.67921 191 167 135
-2.15075 1.01881 -23.8802 91 79 89
8.98428 -29.7055 15.7597 211 196 176
1.256 2.27068 -22.1087 116 63 22
-1.59071 1.38075 -23.5678 90 52 26
1.36183 1.97909 -22.5962 86 73 80
1.05385 -42.7123 2.935 174 148 115
5.65234 -26.5825 18.3471 209 189 165
1.4678 2.31647 -21.9764 127 69 26
2.00869 -38.991 7.34843 196 180 155
-4.87937 1.3073 -29.128 201 130 54
-5.09239 3.58766 -27.7357 202 125 42
3.70765 2.20071 -22.6067 62 53 67
3.20785 0.0211862 -23.8729 150 99 56
-10.1024 -6.99478 17.4604 177 174 139
1.18402 2.17803 -22.2287 80 61 56
-4.85872 0.802928 -28.9351 141 80 34
-4.94662 -38.0168 -4.11003 146 124 111
-0.586046 0.86532 -23.9915 90 82 97
3.4916 2.48253 -22.1806 66 52 52
-0.247447 1.13717 -23.5788 89 75 82
1.2842 2.42688 -21.954 93 66 60
7.6349 -17.0839 23.7761 209 196 178
2.53892 -43.728 2.38329 185 162 131
-2.38736 1.76288 -23.1633 95 63 48
3.13547 1.84304 -22.9746 155 102 55
0.54427 -25.1707 11.9885 213 206 189
0.376594 1.88385 -22.7899 91 79 90
-1.21186 0.0475585 -24.3631 93 83 101
6.23239 -40.7505 6.74247 194 171 141
2.04821 -16.457 18.159 211 210 205
-5.32263 1.29643 -22.8621 117 88 64
-5.35431 1.22135 -23.651 66 28 9
3.86658 2.23772 -22.3936 147 106 72
2.54207 0.983678 -23.5904 152 99 55
-10.4264 -11.2263 13.8138 202 201 172
-4.8033 -0.0908363 -29.6672 198 124 51
1.05329 -39.9876 5.50515 185 162 131
3.46007 1.29303 -23.3301 131 76 44
-2.71085 2.3339 -22.5856 102 63 39
-6.24496 -36.9525 -2.91242 155 129 114
-2.71142 2.1297 -22.8103 93 61 43
2.9423 -42.9158 1.54905 186 169 141
4.6736 -23.1474 20.2913 209 194 169
11.0858 -39.9007 9.31868 194 171 143
3.90265 -16.6357 24.0048 205 190 170
1.48721 2.5464 -21.7361 83 70 77
3.26216 1.3022 -23.4784 159 110 68
2.60098 0.640788 -23.7474 156 104 57
-0.924459 1.13114 -23.6919 82 70 82
-1.67348 2.06779 -22.6819 76 55 45
2.44045 1.2997 -23.2721 146 92 46
5.85621 -29.6534 15.4352 209 193 167
-4.86407 -6.91435 -24.9683 208 134 47
1.50739 -40.0868 4.97075 198 186 164
-5.02422 -9.409 -21.1565 198 134 63
1.66475 -41.5643 4.02137 196 181 157
0.910135 1.21531 -23.4436 79 71 84
12.517 -42.835 5.16334 159 129 103
2.01448 -39.5376 6.62293 192 174 148
0.351329 -29.2243 13.7442 212 205 187
0.586478 -32.0461 12.1522 208 201 184
-2.06167 1.74639 -23.2576 80 52 38
4.23707 -32.8468 13.8577 205 184 160
2.56283 0.646826 -23.7599 156 104 57
-4.93467 1.78734 -28.7314 179 99 31
1.77582 -42.9608 3.12412 194 178 155
-0.42704 2.43989 -21.4664 162 103 45
0.101391 0.915164 -23.6237 84 75 92
9.12344 -23.4927 21.3053 161 143 129
1.07339 2.21608 -22.2711 90 75 80
1.08565 -30.0055 13.4513 205 189 166
2.86488 -2.12881 -23.4348 140 102 81
-5.12189 -4.56209 -23.8067 201 129 54
-5.25157 -0.0569794 -24.2755 75 34 14
-5.20561 -4.28039 -23.638 135 71 30
-10.5844 -12.0981 13.968 201 199 171
-5.69489 3.77873 -21.9217 169 106 53
-5.13365 -4.33417 -24.1262 138 75 39
-4.40448 -11.7443 13.9708 69 42 25
-5.15475 -7.80925 -21.673 209 147 71
-5.34799 4.23553 -25.539 110 51 13
1.56557 -17.5877 19.0262 230 237 239
4.60873 -13.3771 25.2817 207 190 171
6.98209 -20.5291 23.1673 212 196 177
-4.08521 -9.00423 15.8711 147 79 32
-1.13138 -22.183 15.7843 206 192 166
-5.84351 2.26054 -19.813 95 53 28
3.21264 -43.8798 2.51129 186 164 132
-5.27488 1.12159 -23.2669 113 85 63
3.40416 3.01537 -21.0768 67 51 52
7.80406 -36.835 10.9201 201 183 159
-1.91743 -21.9169 16.5173 191 174 144
-0.268538 0.685159 -23.8652 85 76 93
2.55555 -44.1463 1.69571 179 155 124
-6.02353 4.70771 -18.9697 200 125 47
1.31006 -38.6256 7.14875 203 194 177
-3.37049 2.18608 -22.5628 153 108 69
2.16715 1.91071 -22.6543 146 91 44
0.878463 -39.3338 7.18607 188 169 142
-0.95515 1.11494 -23.7309 81 68 80
-0.841838 0.215807 -24.1889 90 80 96
-4.50683 -36.3998 -2.22065 171 148 130
-2.73403 1.70338 -23.5398 75 57 62
0.114839 -28.3102 14.7624 213 204 187
-2.50526 2.19728 -22.4496 114 70 42
9.92718 -34.0339 13.7889 205 187 163
10.6652 -33.0502 14.9984 202 181 157
-4.73911 -9.90123 -24.4285 200 127 49
0.673876 1.14344 -23.4969 80 72 87
0.686575 -33.0148 11.6827 208 199 182
-1.85982 -33.4116 -4.94842 133 118 109
2.9425 -43.7547 1.91515 191 174 146
-1.87155 1.49396 -23.4895 97 62 42
-5.34216 4.30082 -25.7133 171 90 27
-1.74609 -32.4945 11.4757 198 190 169
3.57041 2.68374 -21.8597 62 49 57
0.96166 -44.3863 5.06549 181 156 126
1.7035 -16.2384 18.6373 234 242 246
0.442037 -31.2406 12.609 208 199 180
1.07511 -13.64 18.3937 234 245 253
0.812002 -28.4159 15.9367 207 193 170
-3.25759 -7.98756 9.1771 69 41 21
-0.74593 0.299517 -24.1627 90 81 98
-1.42527 2.45003 -21.9392 153 102 50
-1.26748 1.69785 -23.2519 83 68 77
-0.807723 0.269273 -24.1539 89 80 97
-1.53162 2.06772 -22.7046 153 106 63
7.82686 -17.3443 22.7301 208 195 178
0.16812 0.885931 -23.7636 83 74 93
5.92039 -39.983 7.67024 213 205 192
-4.9422 2.04825 -29.098 210 136 46
-1.72298 -28.4221 13.7981 203 190 164
-5.09539 -0.980539 -24.1624 123 127 138
0.819004 -37.4087 7.90438 193 178 153
-3.8142 -6.4978 17.3905 129 84 60
0.591143 -36.3697 9.31513 194 178 154
4.99749 -34.2176 11.4562 219 213 201
3.19092 2.95334 -21.1418 73 48 36
4.16343 -41.261 5.92865 209 202 186
-1.58251 1.05681 -23.9676 89 76 86
0.885016 -44.5258 1.53646 178 150 117
3.52602 2.09791 -22.6907 64 54 64
5.8139 -32.9845 15.3827 220 216 204
0.523405 1.83754 -22.8232 93 81 93
3.4424 2.80824 -21.4634 61 51 62
-6.04018 5.29889 -17.9021 202 129 49
5.30445 -30.7965 14.7699 211 196 175
-2.69671 1.92922 -23.0254 86 58 46
12.3315 -41.2105 5.32252 169 138 109
-4.73581 -4.66836 -26.1084 205 132 52
1.17161 -38.0426 8.00073 201 192 175
-5.39951 6.92747 -26.4564 201 138 71
-4.94481 -8.35591 -22.6593 208 142 64
0.563374 -32.6269 12.0035 199 190 169
-4.78188 -2.37117 -28.7833 185 106 34
4.74931 -24.466 18.7229 212 201 183
2.70646 2.52334 -21.7792 143 80 30
0.200802 0.903887 -23.6852 84 75 93
-3.00635 2.10992 -22.855 79 63 66
-2.58911 2.14977 -22.6066 97 58 34
-5.35507 4.15468 -25.3404 91 37 9
-2.07279 1.23712 -23.7305 86 68 70
6.62212 -21.1859 21.252 211 199 180
8.75065 -29.3785 16.6145 204 187 165
1.08573 2.54861 -21.7159 135 29 16
10.0962 -38.2031 10.8075 213 205 192
0.400279 0.515007 -24.0179 151 99 52
-5.72909 5.61377 -21.315 214 148 62
-5.30892 5.13873 -26.6943 204 132 58
1.11594 -36.9999 8.22972 202 191 174
-3.68059 -9.70606 18.3809 171 102 46
-3.08951 1.50194 -23.7264 150 115 84
-2.71263 1.69036 -23.0845 84 56 44
-4.75928 1.33984 -30.4674 197 123 55
-0.0676366 -43.4915 1.75917 181 156 125
1.63017 -42.4512 3.74476 194 176 151
1.44108 -42.2348 3.01564 180 154 123
-6.14301 0.863845 -15.6485 216 155 73
8.78765 -13.2549 25.634 132 101 81
0.515154 -34.7587 10.2607 198 183 160
-4.26433 1.00675 -22.9562 119 83 55
5.87761 -36.5148 10.0814 203 186 166
-1.16746 2.4298 -21.8567 157 104 53
6.54046 -24.1201 18.4589 212 201 183
1.6016 -39.7389 5.85127 201 190 172
0.374037 -33.5619 11.5051 200 185 162
0.975771 -28.8912 14.8485 206 192 167
-3.02687 1.05959 -23.7223 99 84 87
-2.27737 1.29108 -23.7773 85 72 82
2.91182 -38.8617 7.32173 199 181 157
3.72363 -31.7164 13.675 220 216 205
1.08389 2.50507 -21.7502 132 28 17
-1.44092 -31.4441 11.7837 199 187 164
0.023263 -42.2922 3.64229 180 157 126
6.16847 -27.2867 16.8421 212 200 178
-6.12203 1.35543 -13.6811 216 164 89
0.977168 1.87693 -22.7857 90 79 87
1.5555 2.21123 -22.0727 131 74 29
1.05185 1.55955 -23.1251 134 76 36
0.501148 -36.6365 8.13858 191 175 149
3.57081 1.71111 -23.0656 65 55 64
1.15489 2.53285 -21.7782 133 29 17
-0.918375 0.260338 -24.0624 92 83 100
-5.39583 2.01559 -23.7224 81 36 12
-5.94514 1.79349 -18.1952 209 140 56
-5.3275 4.4158 -24.9941 129 62 14
1.11532 -31.0608 13.4223 205 190 167
-7.38512 -39.4393 -2.22153 100 95 92
-3.18748 0.837152 -24.129 145 114 87
1.22935 0.966474 -23.5954 143 86 41
7.53083 -11.2651 25.5271 186 172 159
-0.993502 0.874497 -23.9067 60 49 58
0.942956 -38.5539 7.77001 195 180 157
-0.532885 -11.5607 17.9992 217 224 230
2.28038 1.94296 -22.7233 147 93 46
2.73725 -44.4585 7.47106 206 199 183
3.95127 -19.7392 22.4954 221 217 205
4.45997 -11.308 25.0873 212 200 184
1.29673 -0.557501 -24.0538 157 108 67
9.33266 -33.1535 13.7583 215 208 192
-2.13778 1.94989 -22.9691 90 58 43
-1.00238 -30.9484 12.2165 196 180 154
8.43323 -22.9783 19.775 210 199 181
7.13241 -40.7543 7.72821 212 201 185
-5.27148 6.6149 -27.8198 215 153 74
-5.21293 0.549879 -24.532 83 38 14
-5.44975 -36.1575 -2.04081 175 146 128
4.86593 -20.4878 22.0552 218 213 201
-0.383572 -34.0177 11.0255 203 191 167
0.363316 -32.515 11.8545 200 188 166
-3.47592 1.14666 -23.9658 109 72 46
-5.96064 5.85618 -18.1764 200 127 49
-1.54544 -30.7459 12.5438 200 188 164
-5.19488 2.25928 -26.4718 83 34 9
6.06959 -28.5437 16.2601 222 217 205
-1.2131 2.40912 -21.8687 157 106 56
7.10907 -34.3669 13.088 217 211 199
-4.80605 2.70558 -31.3913 199 125 50
-6.14611 6.32941 -17.3056 201 124 42
1.11094 -36.0568 8.4454 203 194 176
-0.139483 -33.4558 11.3435 202 187 164
5.30927 -34.3391 12.9876 213 206 192
-0.985004 0.35087 -24.0968 94 83 100
7.0695 -40.6163 6.24451 201 180 153
-5.54434 1.57194 -21.3161 111 79 54
-1.4264 -0.349426 -24.4451 90 85 111
-5.02417 -10.0243 -22.6973 201 133 60
-6.08937 4.61238 -17.787 201 130 49
7.00025 -39.7889 7.0708 212 204 190
-0.767575 -34.6535 10.8218 196 181 158
-0.768092 -29.121 13.7123 207 192 169
-4.94251 -7.03544 -23.714 198 126 50
0.807453 -34.2933 11.5943 208 201 183
-3.3007 1.85489 -23.1524 151 111 76
9.19182 -23.6596 17.7861 161 143 129
2.54711 -40.56 6.59753 206 199 183
1.54558 -30.3648 15.2437 219 215 204
-1.37224 2.27663 -22.082 166 117 66
4.31471 -28.8015 16.2872 221 217 205
-0.498112 0.465783 -24.0266 88 80 95
-5.17951 2.67229 -27.3819 95 42 11
6.86896 5.48939 -18.6211 209 194 173
7.96259 -41.6969 6.39217 198 177 148
2.75853 -33.8193 11.86 215 210 198
-5.11425 -8.91739 -21.9596 204 140 66
8.17037 -37.1189 10.1214 213 207 195
-5.0801 1.96219 -27.1327 80 32 10
6.56643 -35.2402 12.4167 217 208 194
5.5525 -23.0849 20.5464 214 199 177
-5.2152 -4.15537 -23.2406 150 83 37
-5.07699 -9.62989 -22.8431 202 134 57
-5.13168 -9.23799 -22.1978 209 144 70
-5.36824 4.37358 -25.4904 164 89 29
-5.46778 1.44629 -22.7189 87 53 33
-3.84802 0.970379 -23.6486 115 78 52
-5.49655 1.67126 -22.9166 70 28 6
8.56957 -36.7317 10.6029 205 189 169
-1.16155 0.543347 -23.9995 92 81 96
6.21925 -11.4207 25.5681 214 201 187
6.90309 -35.8556 11.0653 200 183 155
-2.15897 2.18859 -22.6533 96 60 37
9.0749 -24.2282 19.8324 168 152 139
5.55522 -21.4041 21.3545 212 201 183
-6.24074 0.636818 -13.2058 216 166 97
4.17194 -29.3695 15.2369 215 203 181
0.267572 -11.6573 18.0123 225 232 240
-0.498596 2.21078 -22.4027 163 112 59
-6.04607 1.35819 -15.4273 211 149 70
2.03975 -15.5699 18.3519 222 221 215
-6.33108 5.61521 -14.3393 207 137 52
-5.56115 7.19321 -24.7546 209 143 67
0.383014 1.22056 -23.6877 83 74 90
2.38713 -19.7015 18.637 218 207 190
-2.01308 -30.626 12.914 209 204 185
-5.99686 2.51409 -17.1463 206 139 52
7.99561 -29.4782 16.6587 212 197 174
6.3897 -12.4051 26.6824 224 220 211
3.65182 -12.3037 25.9161 224 221 214
0.280993 -44.0534 1.7473 174 148 115
0.974161 2.03669 -22.2095 88 75 84
0.432822 0.763263 -23.7911 145 91 46
3.0076 -22.3854 12.4771 129 90 70
-1.09837 -22.2439 12.0419 111 58 27
-1.90894 -20.9353 17.8983 113 99 86
3.21028 -21.8948 12.7695 92 46 25
-0.0289633 -20.66 18.3939 110 102 76
-2.22547 -22.382 12.0761 233 221 181
4.56838 -47.1034 3.18938 130 113 84
-0.596613 -20.8633 17.4806 164 165 161
-1.37158 -21.0323 17.5997 136 138 137
-2.25054 2.59196 -17.8636 169 126 84
-6.15921 3.5289 -18.7519 101 56 29
2.84539 -22.0108 12.132 162 110 79
3.68633 0.541582 -23.8772 161 89 41
1.50293 -23.0705 13.1277 147 91 61
1.90622 -21.3363 13.4878 226 223 214
0.752586 2.36452 -22.4313 168 130 90
-5.60122 4.21123 -21.541 207 142 57
-0.0787576 -21.8125 17.965 138 135 104
1.45439 -22.8614 12.362 104 77 76
3.98196 0.570021 -23.8522 71 58 63
-11.8407 -17.4261 13.6515 226 228 214
3.98153 0.957002 -23.7503 48 29 25
3.88455 1.8477 -23.275 50 23 12
4.01979 0.138894 -24.0521 62 39 30
3.74192 1.68545 -23.3413 142 80 43
2.20426 -19.446 13.0567 227 224 215
3.8462 2.17703 -22.9678 49 25 13
-2.72682 -18.9316 17.8894 220 225 229
3.96952 1.17946 -23.6311 58 39 32
1.11091 1.69732 -18.4815 99 79 78
-2.00764 2.59589 -18.245 161 124 87
-2.45946 1.58403 -23.6956 49 25 15
3.86187 1.47483 -23.5245 148 83 41
0.221108 1.99052 -22.917 162 125 89
-11.9169 -18.579 13.6545 221 219 198
3.57533 0.242114 -24.0566 73 30 13
-0.11546 0.985091 -23.804 50 34 33
4.02764 0.500082 -23.9212 56 36 28
-5.67063 1.41375 -19.5221 215 145 47
-1.60252 2.36376 -22.3852 61 32 18
-12.0973 -18.0329 13.6178 136 127 94
3.96051 1.38864 -23.5471 50 28 18
0.629388 2.58804 -21.7795 163 106 51
0.066125 2.15665 -22.7635 168 127 85
-0.221726 1.74166 -23.2022 106 14 8
-10.8171 -17.3371 13.772 212 212 191
-0.313242 2.74329 -21.2236 62 26 8
3.32925 3.28413 -20.4299 57 33 24
-1.69022 2.32998 -22.4969 88 62 52
2.89666 -21.6172 13.2595 209 201 186
3.93358 1.26807 -23.6011 67 57 60
2.19375 -22.8989 12.9168 92 67 65
8.9725 -20.566 20.6851 143 117 96
-10.5954 -17.1214 13.7553 213 213 193
-0.419508 1.95637 -23.0179 70 38 31
-0.180368 2.7096 -21.4052 161 102 44
-0.15148 2.13796 -22.5534 169 124 77
-3.19148 -21.5795 16.7096 175 153 117
0.324303 2.11527 -22.7843 47 26 19
1.46732 -22.0375 12.6454 132 82 52
3.87739 2.04649 -23.0889 56 36 28
1.16563 -21.1733 13.8772 217 205 184
0.37353 2.21313 -22.6962 65 48 43
-1.78605 2.398 -22.4533 58 30 17
0.721822 2.66729 -21.7384 162 106 50
3.39143 -22.4495 14.3792 133 88 58
-10.9667 -17.4812 13.772 205 205 182
-0.988729 1.87252 -23.1927 117 74 44
-1.88045 2.1859 -22.8236 135 83 20
-0.00141626 2.70778 -21.6145 163 103 44
-2.18436 2.71916 -17.5059 222 184 129
-2.14785 2.22582 -18.3103 237 243 233
1.17293 2.69522 -21.9027 141 31 18
2.69714 2.82712 -21.6523 154 94 42
-5.88572 -15.7468 15.6195 137 121 93
7.94489 -21.5254 20.1204 226 222 213
3.92905 -24.296 16.3313 226 223 214
-1.71637 2.49526 -22.3802 95 71 65
2.14292 -22.8921 10.6321 214 204 188
-0.348636 2.08814 -22.9309 79 54 48
3.13706 2.77114 -22.1132 65 48 46
1.32729 -24.0952 11.3387 216 204 184
-2.17857 2.82971 -17.5335 222 185 132
2.71723 3.04251 -21.327 85 66 63
-1.65044 1.28664 -23.7657 53 31 21
-1.42345 2.38016 -22.3071 169 119 66
3.71336 2.81239 -22.2247 50 30 23
-0.0145089 1.48591 -23.4576 72 24 23
7.46137 -18.5262 21.9401 225 221 212
-0.0715565 2.67216 -21.6165 165 105 45
-1.66532 2.54693 -21.6638 161 103 46
3.92048 0.801777 -23.7085 64 40 35
8.11269 -23.9905 17.0204 224 221 212
-1.168 2.00222 -23.0764 106 65 40
3.41638 1.61537 -23.3119 148 84 44
8.31755 -26.9735 15.2287 224 220 209
-0.0836504 -22.674 11.3062 206 155 105
-0.148986 2.89067 -21.3217 113 83 71
-1.65556 1.98692 -23.055 97 54 26
-1.10665 -23.3778 11.5973 127 91 70
3.60966 1.88183 -23.0588 70 57 58
3.57345 3.13168 -21.5801 75 50 43
-1.85724 2.1617 -22.905 127 72 15
-2.14274 1.59604 -23.5392 96 61 43
2.84406 3.22042 -20.6446 71 43 28
3.76712 2.59773 -22.5375 48 31 24
10.7234 -30.7321 13.536 214 205 190
-0.572762 -21.3789 18.5535 173 171 159
-1.95436 2.63471 -21.3154 119 86 69
2.4843 2.94053 -21.3391 151 92 42
-1.36629 2.37727 -22.3013 170 120 68
-0.0726498 1.78595 -23.1846 122 29 19
-2.58884 2.00586 -19.2045 132 91 53
-0.261727 2.54063 -21.9565 167 116 62
-7.96446 -13.6756 16.711 210 209 183
3.46828 0.725418 -23.9108 149 88 49
-0.49396 2.0654 -22.9405 102 83 87
5.10542 -24.2484 16.921 229 226 219
-0.92337 -19.8781 18.0707 220 225 229
0.710376 -22.9849 11.4513 229 198 155
3.22869 -49.9881 1.81885 195 188 168
-0.812758 -20.2057 18.4135 215 220 224
-7.93343 -14.0296 16.9625 206 203 178
-0.508857 1.75423 -23.2514 95 79 89
-1.80915 2.27513 -22.6388 79 50 35
3.30736 2.14298 -22.9329 69 58 69
-1.99977 1.47012 -23.6638 49 22 12
-1.71236 2.55769 -21.928 93 63 44
2.89212 3.01659 -21.4974 161 109 63
-5.17833 1.35649 -20.3005 167 107 52
0.184434 1.91455 -23.0753 65 49 49
3.74224 2.72333 -22.3819 55 36 30
-0.440827 1.76677 -23.2576 92 78 88
-1.36414 1.30855 -23.6556 131 87 52
3.54567 2.13996 -22.8798 68 54 53
-12.3583 -13.8396 16.8528 225 227 210
0.067854 1.60047 -23.3267 88 79 94
-1.51496 1.23521 -23.7105 79 43 19
2.96528 2.76365 -21.8087 160 110 67
0.253282 -20.6776 14.4209 215 208 192
3.76777 -46.3168 3.57388 210 204 182
0.207996 0.715661 -23.9462 152 98 51
0.621928 1.05485 -23.7459 149 92 47
-1.44253 1.85155 -23.22 143 96 56
-5.39873 -16.2683 15.5597 148 132 104
1.00891 1.58352 -23.2813 135 80 41
3.10655 3.07651 -21.5531 76 35 14
-1.75008 2.44284 -22.2845 93 70 65
0.976576 1.18696 -23.6308 142 87 47
1.89012 -19.8759 21.4101 214 199 178
3.75287 2.03106 -23.0899 116 67 40
-1.70944 2.03322 -22.9919 66 39 27
3.29557 -48.5675 1.95551 167 149 114
1.03895 2.71706 -21.5153 86 37 25
-0.753734 1.02089 -23.8202 49 37 39
3.75522 1.96168 -23.1191 141 81 42
2.31904 2.71156 -21.8428 153 92 40
0.31848 2.30956 -22.6812 42 21 12
0.439509 2.59803 -21.9724 102 73 58
0.780023 2.52039 -22.1383 168 119 70
3.3224 1.79142 -23.0536 69 56 62
-0.0295178 2.41573 -22.0773 167 115 58
2.95499 2.93908 -21.6881 159 109 67
5.64414 -46.3467 3.33859 209 201 180
-1.48014 1.84778 -23.2432 127 81 48
-1.34713 2.15382 -22.8996 166 123 80
0.370053 -21.1091 18.301 199 200 97
8.46171 -34.72 10.2942 208 191 165
0.256332 1.81766 -23.1672 89 79 95
1.20726 1.86956 -23.0752 136 77 35
-5.55149 -16.8305 16.156 148 133 104
-0.533262 1.67191 -23.309 94 79 85
-0.485936 0.187197 -24.1215 150 96 52
-1.23004 1.1922 -23.7841 100 58 31
-0.908199 1.5959 -23.4523 96 70 59
3.10438 2.90094 -21.8766 55 40 40
-1.72098 1.6785 -23.4423 107 70 47
3.2511 3.39429 -20.317 143 79 36
1.65649 2.06259 -22.8582 141 85 40
-5.18974 1.02883 -28.7738 206 130 46
3.09087 2.59073 -22.3692 160 112 71
-1.56303 2.291 -22.6049 73 45 33
3.55084 1.66907 -23.3375 118 70 40
-1.83899 1.44058 -23.6494 92 57 37
-3.06022 -13.7388 18.2312 230 237 249
0.858418 2.75276 -21.5504 100 79 75
-1.67971 1.19505 -23.8794 92 80 92
-0.511451 2.79052 -20.9399 170 114 57
1.11311 2.53335 -22.1308 100 71 60
3.33522 3.10467 -21.5118 75 33 13
-5.74266 -0.27772 -22.5641 133 107 84
0.330179 2.75274 -21.6025 103 82 77
1.9631 2.5534 -22.0907 87 64 55
-0.570223 -21.939 11.9943 182 103 35
-0.128177 0.442444 -24.0435 151 97 51
-0.0235525 2.75141 -21.2513 108 83 78
-1.64614 2.51735 -22.168 83 55 40
3.25577 1.60396 -23.3249 156 107 70
-2.49145 1.65756 -23.508 71 47 40
-5.34507 4.05776 -25.6166 83 35 10
0.170429 2.52784 -22.324 167 112 55
-2.97156 2.20524 -22.7162 80 57 55
-5.13533 1.78323 -28.4869 191 114 40
-8.28731 -14.8693 16.7955 197 194 172
2.8095 3.16207 -20.9065 145 106 80
0.181894 1.77533 -23.216 87 79 94
-1.63537 2.54927 -22.0991 89 58 39
1.97689 -45.179 4.09168 202 190 168
0.492753 -0.447603 -24.2484 146 94 57
2.35979 2.67193 -21.7799 154 92 41
-2.5399 1.62538 -23.5125 69 46 38
2.51746 3.21569 -21.2428 81 66 73
-0.151164 -21.6006 11.9857 188 103 29
-5.09932 2.15244 -28.434 196 118 45
-0.494798 -23.0263 18.2652 216 209 193
-0.308463 0.403732 -24.078 80 58 56
-0.476337 -21.7678 13.7366 147 115 86
0.271987 -0.135754 -24.1413 154 103 59
2.61473 -21.7233 12.5478 123 78 54
0.378706 2.27288 -22.4168 92 74 70
3.51067 2.64749 -22.363 68 56 60
-2.57334 2.22298 -22.2574 113 71 46
0.778562 2.28602 -22.6253 106 88 86
0.626229 -13.79 18.9745 211 220 229
0.897422 -15.8137 18.5079 225 232 240
1.47194 2.66646 -22.0211 88 73 80
-1.39324 1.01885 -24.0216 87 76 89
0.275224 -0.350424 -24.028 154 103 60
-5.17827 3.01363 -27.4717 104 53 22
4.10586 -34.4837 10.4892 207 191 166
-0.855478 2.03954 -23.0141 99 82 88
3.40401 -43.2217 5.57957 211 204 188
3.65417 1.96418 -23.2783 64 56 69
3.72055 2.38066 -22.7957 65 57 71
0.542345 -21.1528 13.3107 222 196 157
-5.24214 2.63581 -27.9653 198 118 45
-1.40079 1.52091 -23.5468 99 58 31
0.0103595 -29.8847 12.9987 199 181 150
-5.14139 -3.7174 -28.1429 184 106 43
-0.0728328 -28.2512 13.8692 203 185 156
3.42745 3.18806 -21.2916 67 52 55
1.72806 1.99676 -23.0679 146 87 43
0.381268 2.84753 -21.0197 104 83 81
1.48839 2.6805 -21.969 88 75 84
0.812987 1.21657 -23.6755 65 40 30
3.40805 1.69894 -23.1835 138 78 42
-5.20393 3.04994 -27.706 193 114 43
